ply
format ascii 1.0
element vertex 470
property float x
property float y
property float z
property uchar diffuse_red
property uchar diffuse_green
property uchar diffuse_blue
property int32 number_of_camera_sees_this_point
property float vsfm_cnx
property float vsfm_cny
property float vsfm_cnz
end_header
5.69123506546 0.893739163876 6.74793291092 87 61 48 3 0.815465006292 -0.0766955859365 -0.573702545411
5.57425689697 0.860019803047 6.6075758934 116 78 64 2 0.614842030607 -0.0783307903459 -0.784750638536
2.33210301399 -0.57733631134 7.3625202179 14 28 43 2 0.744110937816 0.0758918189533 -0.663731379429
5.65981578827 1.14528286457 6.52872133255 106 71 49 4 0.905093152315 -0.109757786865 -0.410803619574
5.65981578827 1.14528286457 6.52872133255 106 71 49 4 0.905093152315 -0.109757786865 -0.410803619574
5.62153053284 1.4484038353 5.82047557831 87 51 33 3 0.855627267972 -0.148850732616 -0.495727180718
5.70800256729 1.42436301708 5.91247367859 83 47 32 2 0.736039179536 -0.149419572388 -0.660242468776
5.70800256729 1.42436301708 5.91247367859 83 47 32 2 0.736039179536 -0.149419572388 -0.660242468776
5.63581037521 0.715568423271 6.8118724823 111 79 58 5 0.863687767598 -0.0566584391582 -0.500832568205
3.99489784241 -0.48689737916 7.91007614136 9 19 26 2 0.720955437341 0.0734467022545 -0.689078253391
5.45162153244 0.608366787434 6.73710918427 77 51 42 2 0.796051282927 -0.0393262852342 -0.60395016205
5.48921871185 0.39852809906 6.96836948395 10 10 11 2 0.782237376644 -0.0147482950873 -0.622805888197
5.45011663437 1.96578419209 5.70960950851 79 46 33 3 0.897897161311 -0.199751106966 -0.392275646676
5.49238538742 1.82294237614 5.77658414841 144 101 79 2 0.832681673852 -0.19020191107 -0.520061980014
5.23883914948 1.01236796379 6.40305185318 10 10 10 3 0.888128596326 -0.0856497452733 -0.451543704998
1.16306841373 -0.350990951061 9.84256267548 22 22 20 2 0.800839956767 0.044680678107 -0.597209344074
5.89625501633 1.55625510216 6.31600379944 104 65 47 6 0.984056499485 -0.166748885973 -0.0618677205644
5.69422054291 0.918559551239 6.89862775803 113 73 46 2 0.509799387874 -0.0866504255352 0.855918388562
5.6589846611 1.13950395584 6.25469398499 190 145 118 2 0.483258860995 -0.10371462085 0.869312458608
6.04783535004 -0.363735228777 7.28847408295 49 94 128 2 0.735287165259 0.0744606921067 -0.673653018947
5.89396286011 1.68387520313 6.11100006104 86 50 35 5 0.967128664068 -0.177036117879 -0.182538653727
5.80601263046 1.54132437706 6.02209043503 93 56 36 3 0.920721366768 -0.162402899027 -0.354820325184
5.60968017578 1.00582122803 6.61564874649 179 143 128 4 0.928652283881 -0.0892265209691 -0.360060499914
5.64596748352 0.821205973625 6.99995136261 82 53 39 7 0.996776133075 -0.0785273537614 0.0164558574312
3.49769425392 -0.458559632301 11.7452964783 53 47 34 2 0.653172587698 0.0540136036994 -0.755280147558
2.25233149529 -0.473599582911 10.9973659515 90 73 53 2 0.727527871462 0.0538355209801 -0.68396266925
1.16585993767 -0.55677062273 10.012424469 11 11 9 2 0.794362868233 0.0590134669064 -0.604570131826
2.33249807358 -0.614451944828 10.9346189499 94 73 52 2 0.7266174889 0.0644652561473 -0.684011151644
5.63655900955 1.49720156193 5.83194732666 78 47 37 3 0.897271871587 -0.148819140372 -0.415639329128
5.86072206497 1.52188456059 6.48513412476 95 57 41 7 0.983484376204 -0.169269288858 0.0640811174361
5.86164283752 1.49956476688 6.20724391937 155 109 87 6 0.985889884587 -0.159400371286 -0.0511141575564
5.72724723816 1.35630881786 5.97707939148 102 64 43 5 0.976484262618 -0.136032086735 -0.167253568684
5.7023897171 1.26270925999 6.55394411087 131 88 65 4 0.926503553053 -0.119882258388 -0.35667830086
5.73813533783 1.33989346027 6.91244649887 101 60 44 2 0.504522084713 -0.131635094513 0.853305143504
5.94859552383 1.64432406425 6.48996829987 113 67 52 2 0.467366318375 -0.15899888983 0.869648249283
0.756992638111 -0.457323074341 4.49164104462 18 14 6 2 0.679973921029 0.0398444972085 0.732152909413
5.62141656876 0.622359752655 7.05852842331 140 95 74 2 0.524053882949 -0.0556289790911 0.849866427417
0.126767411828 -0.650341510773 7.81691551208 7 10 9 2 0.886231532052 0.0670902851593 -0.458358555319
5.91929244995 1.73864543438 6.14534950256 85 48 30 2 0.796908087658 -0.183516754454 -0.575551127755
5.923620224 1.62161099911 6.29538583755 155 114 101 4 0.92620339511 -0.166276994601 -0.33837735142
5.89467763901 1.57051575184 6.34546709061 99 56 36 6 0.983596870076 -0.168384055483 -0.0646839009024
5.88616657257 1.54613018036 6.20644187927 100 61 41 6 0.984883600447 -0.165494999185 -0.051143903011
5.80280828476 1.4849896431 6.07623100281 92 54 32 4 0.93751237468 -0.1496580569 -0.314122608749
5.69751405716 1.43886268139 5.89738702774 133 96 75 2 0.825041389218 -0.146205117536 -0.545830348811
5.69706010818 1.43774592876 5.89773464203 133 96 75 3 0.894000683382 -0.142340806462 -0.424855119928
5.81908655167 1.41456210613 6.18347930908 109 68 47 5 0.971350545079 -0.143704165433 -0.189280826846
5.80942773819 1.38065838814 6.18714666367 154 111 89 5 0.971902637249 -0.139536582001 -0.189564780462
5.7094874382 1.25110077858 6.04101228714 122 81 58 5 0.977087623203 -0.123201349032 -0.173554614402
5.66216897964 1.25254380703 5.97441768646 159 118 94 3 0.894082108855 -0.119681018429 -0.431617465417
5.75867891312 1.26382946968 6.73507499695 153 115 96 6 0.986517997456 -0.128473890367 -0.101374060729
5.70708560944 1.22509169579 6.55494689941 166 124 102 5 0.967497923719 -0.1185692506 -0.223358681073
5.67383003235 0.906449377537 6.70073604584 89 55 36 4 0.92555747598 -0.0781323573074 -0.370457411047
5.6410241127 0.745282530785 6.76866769791 171 133 112 3 0.863421687435 -0.0571553782712 -0.501234727848
5.63915300369 0.745366156101 6.76995658875 171 133 112 4 0.924798225982 -0.0592210067747 -0.375820586952
5.68148326874 0.72409760952 6.94387626648 87 59 43 4 0.917875184342 -0.0566170239164 -0.392809952232
-0.344104886055 0.859672129154 7.52855300903 140 108 76 2 0.902354975944 -0.0421100295619 -0.428931512947
5.57618236542 0.551007449627 6.79701042175 160 122 101 3 0.864796716808 -0.0347985919266 -0.50091485963
5.03211021423 0.165709972382 6.95658922195 10 9 8 2 -0.0185900552644 -0.0109125284063 0.999767636288
5.44633245468 0.632463335991 7.2052116394 187 144 127 2 0.54437543624 -0.0569216539272 0.836908184769
4.48534440994 0.702305734158 6.68354177475 68 48 33 2 0.348167582351 -0.0625462260907 0.935343415116
2.40817379951 -0.357580333948 11.0379896164 50 25 15 2 0.72103206175 0.0457373053014 -0.691390529898
5.95505857468 1.6395329237 6.40651988983 110 70 51 6 0.97877394734 -0.19218649422 0.071175216526
5.95505857468 1.6395329237 6.40651988983 110 70 51 6 0.97877394734 -0.19218649422 0.071175216526
5.85303211212 1.54856181145 6.11496019363 139 97 78 4 0.934486177478 -0.157698304412 -0.319165832896
5.74478769302 1.51914274693 5.93586492538 128 89 72 3 0.889961916651 -0.152295522407 -0.429853301448
5.87840414047 1.51039266586 6.23653936386 106 65 42 5 0.968267008992 -0.155829461766 -0.195387251741
5.82972431183 1.5011190176 6.12199831009 109 64 39 3 0.944050741345 -0.164514330734 -0.285837773483
5.86316871643 1.46446502209 6.30862045288 112 70 50 8 0.960657092007 -0.170921211535 0.218915259917
5.84402132034 1.43533730507 6.28236722946 125 81 54 4 0.931049502373 -0.1433296924 -0.335564335719
5.83990764618 1.43512988091 6.28527545929 125 81 54 2 0.797469581135 -0.143881542639 -0.585952531228
5.70413637161 1.34478592873 5.95115613937 150 108 84 3 0.928378053641 -0.137100840791 -0.345423723811
5.75405073166 1.27753424644 6.12672519684 122 80 58 5 0.974946132371 -0.126714598498 -0.182820812554
5.7249917984 1.22681474686 6.60802507401 117 77 55 5 0.966184832753 -0.118837831874 -0.228832774474
5.68007564545 1.20651340485 6.50317525864 127 85 61 4 0.92928730065 -0.11341539401 -0.351513955984
5.72464799881 1.16288912296 6.66737985611 109 72 50 3 0.862413306309 -0.105764248865 -0.495032537076
5.66355228424 1.06652116776 6.61464595795 174 138 116 3 0.867519118492 -0.0944965195829 -0.48834515134
5.66434669495 1.06606709957 6.61421775818 174 138 116 5 0.968466929472 -0.0993788301795 -0.228463683395
5.54389047623 0.998416483402 6.48199892044 192 153 143 2 0.803972554314 -0.0867058683314 -0.588311332806
5.70132303238 0.907102942467 6.8692111969 160 123 106 4 0.919008471403 -0.0778650639942 -0.386471811778
5.7060008049 0.903872549534 6.82207345963 109 73 58 5 0.97606427876 -0.0844369553027 -0.200421865843
5.68799114227 0.859857261181 6.82292127609 112 80 60 7 0.995949030504 -0.0837334791267 0.0327754956085
5.59318065643 0.733485281467 6.69453048706 151 115 105 3 0.868247258191 -0.0557860377208 -0.492985412197
5.66835069656 0.674913823605 6.93037509918 99 68 49 7 0.997919601294 -0.0602616927283 0.0229128292186
5.64558267593 0.64684176445 6.87166547775 156 123 106 4 0.92156083678 -0.0477671162466 -0.385284215506
3.48258924484 0.815580189228 11.7428302765 31 17 13 2 0.654315872716 -0.0404465543141 -0.755138937518
1.86500358582 0.215810358524 10.870306015 118 104 85 2 0.745736863287 0.00387982950681 -0.666229298108
1.87786304951 0.122391343117 10.8552885056 104 84 72 2 0.745826334041 0.0105696600911 -0.666056575477
5.45907735825 0.658142030239 7.22814226151 140 101 78 3 0.417288293449 -0.0620077594425 0.906656229185
0.119398422539 -0.732814133167 7.85806322098 30 40 55 2 0.884765614306 0.0729344888336 -0.460293784535
5.8379611969 1.45474767685 6.47429323196 129 84 63 3 0.97743580426 -0.141170175215 0.157131251443
5.85389852524 1.47999584675 6.48298311234 155 109 86 5 0.928167315056 -0.147375580439 0.341739481992
5.97228622437 1.69100105762 6.47855854034 133 97 81 2 0.776492980705 -0.174376901311 -0.605517421058
5.85033845901 1.63926231861 6.04763698578 131 92 75 5 0.969467528991 -0.171191712591 -0.17557365341
5.95278787613 1.64449751377 6.46618366241 152 108 90 2 0.778883794376 -0.16867515457 -0.604060201544
5.8648109436 1.5519194603 6.13272476196 107 66 45 4 0.933685861733 -0.158185478277 -0.321260122116
5.80881118774 1.40348112583 6.12718629837 103 60 37 5 0.972634771112 -0.142423943205 -0.183567487389
5.82722663879 1.42140507698 6.43264102936 116 73 55 5 0.96626690838 -0.143716276218 -0.21371451453
5.81538629532 1.39240157604 6.3224067688 133 91 67 2 0.79704235879 -0.138002675754 -0.587944503997
5.77768135071 1.37185192108 6.47496509552 170 127 110 2 0.790385008174 -0.13354699214 -0.597876860017
5.75712585449 1.34038412571 6.54718399048 124 80 58 7 0.987760733579 -0.144734789312 0.0581427034384
5.78897094727 1.33126091957 6.76106071472 106 69 49 8 0.971651036677 -0.153868094255 0.179496162895
5.78872871399 1.32880985737 6.76200485229 106 69 49 4 0.955215466207 -0.140745105453 -0.260296424122
5.73337602615 1.1773147583 6.70794057846 116 82 61 5 0.964518725255 -0.112864857768 -0.238673736539
5.71244335175 1.12033164501 6.71842575073 122 84 66 6 0.991791622198 -0.120471166213 0.0428494603143
5.58039712906 0.998136222363 6.53839015961 189 155 144 2 0.79932577272 -0.0866318723797 -0.594620238264
5.66009950638 0.854856669903 6.6850566864 99 66 48 2 0.788750838939 -0.0694695836543 -0.610774992137
5.68864488602 0.68654102087 6.94959497452 142 113 101 3 0.853857616865 -0.050199570915 -0.518080276792
5.63504171371 0.674067676067 6.83310937881 149 114 99 3 0.93615858389 -0.0543439898079 -0.347352611307
5.77381086349 1.28021526337 6.26340341568 173 123 96 2 0.474095371966 -0.118449323503 0.872469676288
5.09708118439 -0.408581346273 1.24486899376 64 58 42 2 0.197106732202 0.0279784352841 0.979982726011
5.57058668137 0.626333236694 6.73361873627 131 101 87 6 0.99374791664 -0.0500194587828 -0.0998154893602
5.64146137238 0.609931409359 6.88896179199 177 141 129 2 0.779366939876 -0.0397720840895 -0.62530420945
5.63459682465 0.609597861767 6.89488172531 177 141 129 3 0.858362934544 -0.0414197078089 -0.511368243446
5.31363296509 0.591250836849 6.33124923706 42 25 15 2 0.823704428084 -0.0378868152708 -0.565752246468
5.58546209335 0.572113156319 6.81190919876 115 80 63 4 0.925030513911 -0.0390791622365 -0.377877450257
5.58546209335 0.572113156319 6.81190919876 115 80 63 4 0.925030513911 -0.0390791622365 -0.377877450257
0.82228666544 0.19093438983 9.8035364151 87 75 68 2 0.811386181699 0.00560348584448 -0.584483588388
1.81449913979 0.176294729114 10.7150945663 127 63 26 2 0.752783770287 0.00673507412197 -0.658233419061
5.78640174866 1.33419573307 6.75748157501 109 67 45 2 0.49386252886 -0.129524858482 0.859839004479
5.75221300125 1.36927187443 6.90025472641 93 51 26 2 0.502661051346 -0.134674612804 0.8539289292
5.9881272316 1.72199213505 6.38725423813 86 50 34 5 0.980139612811 -0.195076722683 -0.035656860024
5.95721530914 1.69544970989 6.54210329056 123 87 71 2 0.773550575616 -0.173835066793 -0.609426678541
5.93316841125 1.64834785461 6.27487850189 113 71 61 5 0.964470505373 -0.172941568794 -0.199719448349
5.85936927795 1.50192308426 6.49618053436 107 66 43 2 0.783721927028 -0.149917821934 -0.602747532357
5.8363161087 1.4226937294 6.34783601761 121 78 54 6 0.986649011916 -0.149464002408 -0.0646856960222
5.79551792145 1.37875247002 6.68896150589 130 93 75 4 0.9402573183 -0.138431461442 -0.311051291375
5.78526592255 1.32758915424 6.79205322266 152 111 95 2 0.772772185895 -0.125424607853 -0.622167032598
5.76471424103 1.29876685143 6.35505342484 140 99 79 7 0.987307728727 -0.139493011714 0.0759285748525
2.41644191742 -0.331296622753 2.47852373123 54 48 35 4 0.540373598642 0.0286935824289 0.840935819322
5.59515953064 1.02183425426 6.52012777328 135 99 84 2 0.799518616249 -0.0896713164712 -0.59390995721
5.70396471024 0.965382277966 6.96103334427 97 68 51 8 0.981179185833 -0.104813267803 0.162177631566
5.69992923737 0.884054005146 6.80710029602 160 126 108 3 0.901445957666 -0.0769785340992 -0.425992359904
5.61872529984 0.782836794853 6.70049524307 120 84 69 2 0.790136664989 -0.0606434026816 -0.609923297104
5.61798238754 0.779945492744 6.70230770111 120 84 69 4 0.948876410346 -0.065572917935 -0.308761639978
4.99643564224 0.707579851151 -1.4731194973 51 36 20 2 0.068700989679 -0.0388267221369 0.996881467209
5.60976696014 0.627287864685 6.80359840393 113 77 66 4 0.92470291027 -0.0454921092893 -0.377961632616
5.60976696014 0.627287864685 6.80359840393 113 77 66 4 0.92470291027 -0.0454921092893 -0.377961632616
5.61087846756 0.608399987221 6.82961273193 122 85 67 5 0.967620965306 -0.0453065078604 -0.248308251667
2.5366590023 0.553327262402 11.6161460876 43 40 35 2 0.696342394702 -0.020193153585 -0.717425610003
1.90426945686 0.0395855456591 10.8199729919 33 26 20 2 0.746183127692 0.0165446470712 -0.665535134009
5.58657360077 0.0470920912921 6.5742483139 153 110 86 2 0.799796244929 0.0265817137909 -0.599682732025
7.57235813141 0.265360981226 7.87380361557 122 96 77 2 0.55466529561 -0.00911005634433 -0.832023687595
6.745013237 0.220400840044 4.978120327 252 245 232 2 0.737950840782 -0.00376631205686 -0.67484396084
6.745013237 0.220400840044 4.978120327 252 245 232 2 0.737950840782 -0.00376631205686 -0.67484396084
5.82306432724 1.59641695023 6.6029176712 167 120 93 3 0.360514524153 -0.152792677281 0.92015415863
1.50563871861 -0.233535468578 3.12267374992 54 64 72 2 0.604226229303 0.023213099474 0.796474617195
5.9358830452 1.75620138645 6.17696475983 120 85 66 3 0.913840377774 -0.19128746425 -0.358196691736
1.30644035339 -0.18516035378 3.67100095749 67 59 54 2 0.630665273215 0.0203588798252 0.775787876403
5.51085329056 0.900535047054 6.56904029846 157 118 95 2 0.804077382119 -0.078020869903 -0.589382988747
5.61311864853 0.687971949577 6.77797174454 111 80 60 6 0.988505213198 -0.0597393421536 -0.138883600468
5.61450386047 0.688199162483 6.77732849121 111 80 60 5 0.956115549778 -0.0565925427468 -0.287472328368
5.65053987503 0.667515158653 6.87125825882 109 78 55 3 0.943176497131 -0.0565035394518 -0.32745296653
5.69921541214 2.12572860718 5.9078245163 40 23 18 3 0.944800339941 -0.219184703876 -0.243537231722
5.63626241684 1.49605107307 5.83177232742 78 47 37 2 0.896658363427 -0.147196756284 -0.417536698072
5.71792697906 1.31219553947 5.99365663528 157 115 94 3 0.957940527209 -0.127708387099 -0.256983490122
5.78237342834 1.39031171799 6.06173324585 144 106 84 2 0.885359315373 -0.135529000878 -0.444714259501
5.65142726898 0.784360766411 6.85752677917 148 115 102 6 0.991234705252 -0.0694686885376 -0.112373753242
5.82293891907 1.39254355431 6.31605625153 133 91 67 5 0.977133412021 -0.146905062837 -0.153717915758
5.69993638992 0.890560746193 6.85585737228 119 82 60 6 0.986957096914 -0.0872331302159 0.135299925514
5.70038366318 0.89037156105 6.85721254349 119 82 60 5 0.982720193043 -0.0902582960538 0.161599697339
5.70059871674 0.876708030701 6.83381319046 163 126 112 3 0.965392998316 -0.0783127646392 -0.248763883425
5.53030490875 0.71244263649 6.6278796196 105 77 65 2 0.873880661564 -0.0534902507691 -0.483188764788
5.95112705231 1.72751224041 6.21285057068 114 83 71 2 0.869267744884 -0.175513326142 -0.462134893782
5.79619026184 1.37867891788 6.68925333023 130 93 75 3 0.961676724907 -0.138803230876 -0.236456211317
5.57773447037 0.596699714661 6.76216030121 130 102 86 3 0.969767436271 -0.0447804722557 -0.239887116897
3.88246321678 0.319935470819 1.58101928234 25 21 11 3 0.192390059734 -0.0207878266873 0.981098329005
2.09747028351 0.335678160191 2.59745955467 62 53 43 2 0.395719609517 -0.0197517418495 0.91815895102
5.87499141693 1.34284722805 7.34565353394 6 6 6 2 0.891329307023 -0.121399404314 -0.436800012676
5.37086820602 1.19263088703 6.12049531937 169 127 104 2 0.945985788506 -0.105294280061 -0.306633335649
5.64415788651 0.949082434177 7.18728065491 112 82 66 2 0.906277870941 -0.0778125234144 -0.415458339479
5.63478040695 0.759194552898 7.00498867035 114 95 86 6 0.985521699239 -0.0685927712388 0.155054867911
5.26477622986 0.597610831261 6.57710266113 14 14 14 2 0.936826938224 -0.039646531421 -0.347539120625
5.24870634079 1.8017693758 5.70600748062 131 129 130 2 0.950570206946 -0.170123450333 -0.259758143882
5.66986703873 0.841230988503 6.83887052536 158 113 77 3 0.965166114175 -0.0692491657678 -0.252307203798
5.68185567856 1.07961249352 6.67761611938 168 133 113 4 0.990344648527 -0.0979136547632 -0.098134567528
5.90921545029 1.58457148075 6.41340494156 148 111 92 6 0.962741171207 -0.168549645031 0.211472112637
5.84306621552 1.52599191666 6.14802837372 151 110 89 2 0.934547875854 -0.147921474586 -0.323634832941
5.84306621552 1.52599191666 6.14802837372 151 110 89 2 0.934547875854 -0.147921474586 -0.323634832941
5.8506975174 1.52370381355 6.14583396912 151 111 89 6 0.93227188016 -0.164911216657 -0.321983589774
5.38445806503 1.39011001587 5.80375337601 135 91 69 2 0.952819502536 -0.127971398435 -0.275242287393
5.7678232193 1.27291071415 6.78671360016 108 72 48 6 0.975673527087 -0.130677966988 0.176023968498
5.6670422554 1.1524887085 6.5606637001 160 119 97 2 0.927702145988 -0.102401393271 -0.359002343983
5.67038822174 1.14982771873 6.55872774124 160 119 97 4 0.990670864541 -0.105677446623 -0.0860436832419
5.57198905945 0.459839701653 6.70066595078 77 43 27 2 0.92856930865 -0.0256667625721 -0.370270517774
5.96916389465 1.69653952122 6.47977733612 139 101 83 4 0.98200100695 -0.171049320108 -0.0801008891371
5.90061092377 1.64746963978 6.17008399963 131 91 73 3 0.968486680519 -0.163082385166 -0.188248998154
5.91521549225 1.63995039463 6.25950336456 142 103 80 2 0.927793775135 -0.161093050111 -0.336523015598
5.8912396431 1.54071950912 6.2695813179 90 53 32 3 0.96839839235 -0.150734865864 -0.198704690199
5.79556274414 1.35499203205 6.39791584015 176 135 112 6 0.925773869008 -0.152043343569 0.346158294915
5.78500509262 1.330052495 6.79135942459 155 117 91 4 0.985778288529 -0.126761995975 -0.11032933536
5.71870231628 1.21962630749 6.16077375412 142 98 69 3 0.976245278711 -0.112962621316 -0.184890783925
5.72980737686 1.22006726265 6.15861129761 142 98 69 6 0.964939412612 -0.122054361214 0.232367516869
5.64776515961 1.14935779572 6.19562911987 143 104 79 2 0.940622666448 -0.103307062628 -0.323352207623
5.64776515961 1.14935779572 6.19562911987 143 104 79 2 0.940622666448 -0.103307062628 -0.323352207623
5.68256044388 1.08792340755 6.67786359787 169 133 114 2 0.92384483738 -0.0950345268259 -0.37078181611
5.68265581131 1.08273673058 6.72566747665 150 116 100 5 0.9940073507 -0.101971683065 0.0393848017334
5.6746544838 0.829793155193 6.85930919647 167 130 105 6 0.982610836221 -0.0771108761822 0.168907836752
5.67325496674 0.829821169376 6.85945749283 167 130 105 5 0.996975974124 -0.0730908206951 0.0263939188186
5.57566356659 0.55035161972 6.79662370682 168 126 98 5 0.998652144168 -0.0405588624132 0.032386318525
5.93583250046 1.73368549347 6.18420934677 94 56 42 3 0.966364133495 -0.173210383323 -0.190101353502
5.95891952515 1.67976737022 6.51987981796 91 53 36 4 0.984142799469 -0.176590409801 -0.0166966289821
5.96494007111 1.65562927723 6.42618846893 157 116 99 5 0.982745904724 -0.171402124737 0.0695111385645
5.8512096405 1.63957977295 6.04766559601 132 96 78 4 0.98598531402 -0.163103505071 -0.0350743092666
5.93682098389 1.61879265308 6.43960475922 118 78 55 5 0.983658427299 -0.166677464755 0.0680787863179
5.89268684387 1.56229317188 6.45009994507 165 121 98 4 0.984975725551 -0.154772193372 -0.0766054060356
5.87927818298 1.49427688122 6.31701660156 156 115 92 4 0.988126144833 -0.153600033767 0.00370830471715
5.84644460678 1.46549451351 6.20043325424 110 64 37 3 0.97129863536 -0.141902850732 -0.190899297803
5.84644460678 1.46549451351 6.20043325424 110 64 37 3 0.97129863536 -0.141902850732 -0.190899297803
5.79541683197 1.47135913372 6.8398065567 118 86 69 5 0.988624869456 -0.147705359448 0.028354792954
5.83728933334 1.4538269043 6.47415876389 130 86 59 4 0.988890343649 -0.148183907091 -0.011722538815
5.80911445618 1.40403175354 6.1271648407 101 58 30 4 0.989739761838 -0.136182329669 -0.043238604532
5.77938556671 1.42524957657 6.88618564606 124 88 67 4 0.983329647452 -0.137014386444 -0.119540212268
5.82462644577 1.39340877533 6.28905248642 167 122 98 5 0.986868250582 -0.138905750978 0.0824393615828
5.79112291336 1.37777042389 6.66650295258 100 59 38 4 0.989107091666 -0.140054193282 0.0452988317734
5.76565504074 1.35939693451 6.45717477798 134 93 66 4 0.988531265521 -0.130222222823 -0.0764729348941
5.76013040543 1.32737016678 6.43217182159 136 94 76 5 0.989094101884 -0.130564472666 0.0681599302857
5.73187160492 1.29627251625 6.5026140213 171 130 104 4 0.989146625249 -0.12270439336 -0.0808244122131
5.76394033432 1.3019772768 6.82159519196 150 111 92 6 0.975799624279 -0.13414857359 0.172682522165
5.74315404892 1.27191543579 6.103536129 160 117 92 4 0.99187875412 -0.12054626436 -0.0405602671885
5.73699569702 1.27232933044 6.86363601685 104 69 47 5 0.991909822931 -0.124256947798 0.0259829578074
5.73674201965 1.27304530144 6.86371850967 104 69 47 6 0.977036643614 -0.130432323365 0.168483845091
5.67209291458 1.25194060802 5.97150802612 166 122 94 4 0.992715338716 -0.117467916776 -0.0267870268369
5.66617584229 1.25178194046 5.97304439545 166 122 94 3 0.979493183002 -0.116301001107 -0.164521067328
5.71850967407 1.23964941502 6.10619544983 131 89 62 2 0.941618174008 -0.114505000962 -0.316613043214
5.73493766785 1.23232364655 6.18271064758 175 133 112 3 0.975578262394 -0.114517462803 -0.187437468662
5.73607873917 1.23217356205 6.18238258362 175 133 112 4 0.992064387842 -0.115972162652 -0.0485665302971
5.71943902969 1.23173248768 6.32011604309 149 107 83 2 0.934500756065 -0.112719298077 -0.337642853848
5.69003820419 1.19751775265 6.54570627213 120 78 52 3 0.968659589846 -0.109173718429 -0.223113644144
5.72262859344 0.977520942688 6.89603900909 101 69 57 2 0.915940506258 -0.0825351027055 -0.39273521082
5.68642139435 0.859989464283 6.82232475281 110 79 58 6 0.981707070103 -0.0807502115232 0.1724257285
5.22875404358 0.79258954525 6.26916599274 49 42 35 2 0.946354259937 -0.0607725476307 -0.317364635953
5.64728450775 0.754944086075 6.81795072556 109 74 59 2 0.921770191811 -0.0579844198606 -0.383376473643
5.64728450775 0.754944086075 6.81795072556 109 74 59 2 0.921770191811 -0.0579844198606 -0.383376473643
5.9860534668 1.72466135025 6.45543622971 81 47 29 4 0.981576989899 -0.174549113653 -0.077712417439
5.95732355118 1.6528711319 6.36590337753 114 72 53 3 0.963942110082 -0.163938246589 -0.20961836684
5.93032360077 1.62898111343 6.32189178467 124 87 68 6 0.95989873486 -0.173780096885 0.21998840138
5.8948597908 1.53958010674 6.34570789337 136 94 72 3 0.96680115993 -0.150392204492 -0.206585822325
5.86543512344 1.47800326347 6.24632740021 156 112 90 3 0.970060144895 -0.14343877632 -0.195981205053
5.86543512344 1.47800326347 6.24632740021 156 112 90 3 0.970060144895 -0.14343877632 -0.195981205053
5.81774520874 1.40699458122 6.41752815247 169 125 106 2 0.927371963098 -0.132875430401 -0.349750428243
5.76597261429 1.35980641842 6.52078580856 168 126 100 3 0.989028952475 -0.140743599113 -0.0448661395082
5.75436210632 1.32817578316 6.4550318718 176 133 113 5 0.989243690621 -0.130590117648 0.0659025169396
5.75436210632 1.32817578316 6.4550318718 176 133 113 5 0.989243690621 -0.130590117648 0.0659025169396
5.77547550201 1.30443310738 6.20733356476 171 125 98 4 0.990889321285 -0.124526293207 -0.0512986867592
5.75892972946 1.29162812233 6.6248421669 144 102 73 3 0.965187333908 -0.120099456327 -0.232356474094
5.74291086197 1.24603796005 6.21037578583 171 129 105 2 0.937743593294 -0.11506686399 -0.327714159059
5.69331073761 1.22734665871 6.51977777481 172 129 108 2 0.927941502606 -0.111049759792 -0.3557984241
5.70998239517 1.17009830475 6.80744361877 110 75 50 2 0.917741839858 -0.103709918839 -0.3833981848
5.71063613892 0.929999649525 6.8495965004 113 76 52 4 0.98992977629 -0.0814094699934 -0.115808187149
5.65716362 0.805818259716 6.78435659409 113 78 57 4 0.996851555958 -0.0716691116382 0.0339192249381
5.59947013855 0.769810259342 6.66851758957 120 84 64 2 0.927986986701 -0.0596840180394 -0.367801536844
5.63491296768 0.736023843288 6.81479692459 161 124 102 2 0.922201412002 -0.0558593429615 -0.382654268898
5.63053941727 0.633284032345 6.85256481171 113 82 65 4 0.992171879189 -0.0478535401783 -0.115347305291
5.58405685425 0.561655402184 6.85441350937 185 140 112 3 0.985626901497 -0.0397248799011 -0.164199710603
5.9776263237 1.70622825623 6.45658826828 124 88 71 3 0.960806108348 -0.169822777104 -0.219116057234
5.95846414566 1.69968104362 6.54013872147 125 91 70 4 0.981869420281 -0.180529727307 0.0578053550758
5.97563743591 1.68988502026 6.35779333115 97 61 45 2 0.922482076238 -0.167027110648 -0.348035577677
5.77276945114 1.68899512291 5.93960475922 109 76 59 2 0.93957099966 -0.165992487469 -0.299420825431
5.87968063354 1.54713881016 6.43511772156 111 67 42 6 0.964093172738 -0.163685966887 0.209120201137
5.76405668259 1.29375040531 6.22286558151 171 125 98 2 0.936435714439 -0.120580669421 -0.329466925329
5.61215019226 1.07165706158 6.49804592133 134 100 81 4 0.992155685191 -0.0964697371245 -0.0795027431059
5.60843515396 1.07177615166 6.49944782257 134 100 81 2 0.931567246531 -0.0932385802406 -0.351410062953
5.51594591141 0.934073030949 6.56277608871 185 143 122 2 0.931883754069 -0.0772495245932 -0.354436425684
5.67600822449 1.14631736279 6.19343900681 134 94 76 5 0.925993280526 -0.107169087472 0.362009987585
5.55937051773 0.987408399582 6.51531934738 157 116 100 2 0.993418058317 -0.0820723834428 -0.0799042257056
5.55937051773 0.987408399582 6.51531934738 157 116 100 2 0.993418058317 -0.0820723834428 -0.0799042257056
5.6972784996 0.91528826952 6.9031996727 110 74 50 2 0.98990824657 -0.0755245119214 -0.119907095168
5.64120769501 0.894542753696 7.17469263077 98 66 57 3 0.99289305439 -0.0791119693171 0.0889082608905
5.63161945343 0.714027702808 6.81283187866 116 78 61 2 0.99239830942 -0.0545364706687 -0.11032392681
5.61283159256 0.584071457386 6.97399997711 137 95 71 3 0.999021767463 -0.0422493035097 0.0130577366918
5.61371135712 0.577784836292 6.90331554413 137 94 73 2 0.992047904245 -0.0404596678475 -0.119180413495
5.61371135712 0.577784836292 6.90331554413 137 94 73 2 0.992047904245 -0.0404596678475 -0.119180413495
0.979199230671 0.200725615025 4.20284461975 235 215 188 2 0.994601952758 -0.00124910718569 0.103756422937
0.846248865128 0.182779818773 4.25467252731 113 90 66 2 0.995055061033 -2.71495658966e-06 0.09932484838
1.14427876472 -0.634312212467 9.19269657135 120 157 174 2 0.970019255032 0.0560054207785 -0.236486865832
5.90685510635 1.57928133011 6.45936775208 121 81 67 6 0.865416464926 -0.166176431826 0.472694124928
5.90357112885 1.58029460907 6.45929718018 121 81 67 2 0.986230334696 -0.146703472771 -0.0763401467233
5.70550537109 1.37680268288 6.95428276062 100 65 48 2 0.984615841674 -0.122559533634 -0.124542382504
5.77203083038 1.32664382458 6.12123441696 124 78 56 2 0.992022761299 -0.119107740831 -0.0412818015563
5.67599201202 1.19862627983 6.40219545364 173 130 112 2 0.99208405021 -0.104731557705 -0.0692859158792
5.6606926918 1.14113652706 6.50625228882 163 126 112 2 0.991929725358 -0.0986332903174 -0.0796673960478
5.67043209076 0.861096084118 6.88459682465 156 119 103 3 0.990265229749 -0.0753975237954 0.117004222814
5.65380096436 0.85514318943 6.68818092346 96 62 53 2 0.992774211921 -0.0692085889377 -0.0980282375721
5.67608213425 0.663087964058 6.95685815811 120 81 64 3 0.992435496198 -0.0538198085227 0.110341352617
1.28573167324 0.262439936399 9.34430408478 111 79 53 2 0.968526671182 -0.00550183292325 -0.248848984413
0.587078213692 0.0916043072939 5.58471155167 36 26 20 2 0.999944737874 0.00619578287575 0.0084931426256
0.94189453125 0.263746380806 4.13327932358 118 86 66 2 0.661055034292 -0.0107607243527 0.750260253811
1.44328904152 0.811600387096 3.35234737396 33 25 14 2 0.613819040502 -0.0479257927022 0.787990675015
0.688032269478 -0.597789525986 7.83871984482 42 66 80 2 0.988358540615 0.0528057097415 -0.142684800216
5.59076976776 -0.354555934668 4.8051776886 20 29 36 2 0.994293323945 0.0550172716068 0.091399593996
0.708885550499 -0.63872808218 7.77730989456 61 92 120 2 0.988752096938 0.0556764853805 -0.138814335631
5.48289728165 0.721591770649 7.25500583649 159 127 116 3 0.416191307827 -0.0689459441808 0.906659391431
4.90505599976 0.15974855423 7.44630622864 167 130 98 2 0.728881166976 0.0020643654447 -0.68463711762
0.657501935959 0.962864339352 4.28383731842 71 59 38 2 0.675908806539 -0.0590595657902 0.734615037235
5.83205938339 1.42353153229 6.43420219421 113 64 39 2 0.475797174995 -0.135123310099 0.869113766624
5.11184263229 -0.018200814724 6.92666816711 132 97 74 2 0.303757550497 0.00502934425638 0.952736089488
3.10675740242 1.96601998806 6.28026914597 99 86 67 2 0.638795451908 -0.162001473894 0.752127577661
6.40264797211 -0.256158173084 5.80756139755 63 57 42 2 0.408837063946 0.0368804592105 0.911861879274
4.93504524231 0.150886341929 6.8384141922 18 14 11 2 -0.160689966644 -0.00794873742848 0.986972923739
1.05974626541 0.0322724357247 4.04340457916 17 11 9 2 0.653377439518 0.00537496762552 0.757013230566
2.68146038055 -0.441479504108 2.37041974068 59 54 40 3 0.443582746215 0.0340793300667 0.895585253632
5.61136579514 0.420349895954 6.59522342682 9 8 10 2 0.251246070637 -0.0371061794324 0.967211736611
1.48422050476 -0.33821746707 3.41043043137 113 89 57 2 0.614400739881 0.0307338753812 0.788395306771
1.48422050476 -0.33821746707 3.41043043137 113 89 57 2 0.614400739881 0.0307338753812 0.788395306771
6.38810300827 -0.179120332003 1.19599616528 45 41 31 2 0.117044116726 0.0135935559324 0.993033680183
5.90289163589 1.03211200237 0.960500538349 250 250 248 2 0.144809320083 -0.0627104658751 0.987470332864
3.90123438835 -0.217421174049 1.70385754108 84 69 58 2 0.445214233339 0.022251700267 0.895147556701
5.68082857132 2.17018985748 6.80335521698 53 37 27 2 0.244611258935 -0.205071085471 0.94768728065
5.62245750427 0.682082355022 7.13930511475 116 81 61 2 0.40144254246 -0.0639048585246 0.913652042169
5.42391109467 -0.102262705564 6.51852798462 81 66 53 2 0.938840747394 0.0459180380773 -0.341276405297
2.70339393616 -0.226836159825 2.36036729813 112 92 76 2 0.525594879595 0.022856311142 0.85042789911
5.69073915482 1.19582891464 6.54540777206 120 77 55 3 0.98797546089 -0.128999247584 0.0852272421312
5.67925834656 0.839276909828 6.78720188141 124 87 66 3 0.994514397225 -0.0828165676529 0.0638946776702
5.76840925217 1.31246507168 6.19371604919 162 116 90 2 0.989694183099 -0.133746768725 -0.0511588291028
5.77514696121 1.36281764507 6.84904813766 105 68 47 3 0.980737962782 -0.142920999017 0.133141415041
0.93701171875 -0.0967972502112 4.13772535324 84 67 53 2 0.661363102275 0.0143620481939 0.749928382261
5.80286407471 1.3979883194 6.68698978424 103 66 45 2 0.984419623106 -0.143820512529 -0.101161582729
0.772379934788 0.166257426143 4.22732591629 20 19 17 2 0.670820528098 -0.00395884778121 0.741609160277
4.66369342804 0.359051078558 1.30256485939 45 46 48 2 0.392705587098 -0.0168448096756 0.919509964192
5.59582710266 -0.0788867473602 8.11395931244 253 250 252 2 0.994929012075 0.0267014038259 -0.0969705933016
0.662651658058 0.841021060944 4.32048654556 46 26 22 2 0.677276960287 -0.050760300103 0.733975007066
8.92198753357 1.08656477928 2.11243247986 189 158 128 2 -0.652797396555 -0.0737404106582 0.753934951363
6.79591417313 0.176221251488 8.7113275528 117 105 77 2 -0.853782114989 -0.0108772614344 0.520516844404
4.09436702728 -0.293146580458 1.68911755085 56 68 79 2 0.434248419613 0.0275290609868 0.900372401212
5.49449586868 0.79368263483 7.28821706772 149 116 106 3 0.416297397837 -0.0768470219762 0.905975171717
5.67908382416 1.03938245773 6.77025508881 106 78 63 2 0.504543674364 -0.0982402841458 0.857778833517
5.80852460861 1.38567197323 6.15094041824 116 71 39 2 0.987405705425 -0.127669020159 0.0934376486496
5.77269601822 1.31053304672 6.12123584747 157 111 90 3 0.950864780452 -0.122657745735 0.284273190271
5.72628736496 1.2181429863 6.23732280731 179 134 114 2 0.99039783225 -0.109347551011 0.0845886928728
5.69643545151 0.877772450447 6.83333015442 161 123 104 2 0.996904564231 -0.0738748922259 0.0269033476359
5.84044218063 1.54114055634 6.55108213425 144 103 83 4 0.900395362339 -0.155145432376 0.406470277254
5.79255199432 1.37032186985 6.10560798645 112 66 45 2 0.987233779827 -0.125805590137 0.0976852980703
5.69531726837 1.22301781178 6.39202547073 174 132 114 2 0.99154211666 -0.109640606905 0.0694490331583
5.63817691803 0.694313764572 6.8310046196 118 82 63 3 0.974005175696 -0.0569688828844 0.219245214545
4.79553174973 -0.406263977289 1.44692349434 83 63 46 3 0.304757791041 0.0317341764716 0.951901061478
5.50810575485 0.947328746319 7.20333528519 121 90 77 2 0.988683708617 -0.0795170990065 0.127206742281
5.22719335556 0.430522292852 7.12707614899 6 6 6 2 0.990995628461 -0.0252407864616 0.131493600874
5.46629905701 -0.0389749407768 6.60722970963 144 102 76 3 0.946400292921 0.0221520824246 0.32223558277
5.40811061859 0.747117340565 7.31858539581 15 15 17 2 0.991691514343 -0.0583248361096 0.114656678272
5.43032169342 0.652756273746 7.30322313309 250 252 253 2 0.991993224739 -0.0487382694533 0.116507609892
5.43032169342 0.652756273746 7.30322313309 250 252 253 2 0.991993224739 -0.0487382694533 0.116507609892
5.34626054764 0.557193517685 7.21049118042 18 18 15 2 0.991439059289 -0.0385156236577 0.124760324024
5.39586925507 0.22061572969 7.55111122131 248 251 251 2 0.995802041483 -0.00414134303345 0.0914392883648
5.82354640961 1.50752449036 6.56784296036 97 55 38 4 0.873544536476 -0.147057770111 0.463997796377
5.82354640961 1.50752449036 6.56784296036 97 55 38 4 0.873544536476 -0.147057770111 0.463997796377
5.46809911728 1.07649719715 7.28331422806 78 51 39 2 0.988625197023 -0.0925205012259 0.118575615809
5.77680921555 2.02386808395 6.71858501434 129 87 68 5 0.797634319126 -0.210043386474 0.565385946723
5.87281274796 1.50105333328 6.28579759598 143 105 86 3 0.922094445635 -0.141302114154 0.360243731195
5.80453252792 1.45329141617 6.55317783356 158 109 78 5 0.798523158789 -0.146620231977 0.58383497022
5.64251375198 0.649364709854 7.05379390717 173 131 105 4 0.904846683304 -0.0538430822587 0.422319076299
5.55106687546 0.479235738516 6.73553276062 155 115 91 2 0.984123278267 -0.0309656763018 0.174764126937
5.70125341415 0.178068876266 5.5793671608 85 77 61 2 0.957336334856 0.000264465113234 0.28897590215
5.91423606873 2.16674637794 6.74427318573 129 124 121 2 0.96179140017 -0.209253810362 0.176550687929
5.95158720016 1.64675021172 6.46213531494 159 119 102 3 0.92458295821 -0.158716319176 0.346345901397
5.86484193802 1.49751532078 6.20877504349 155 114 87 3 0.919669534319 -0.14040645907 0.36673420061
5.77497959137 1.36912989616 6.56068992615 157 112 85 2 0.972868686708 -0.124754102603 0.194840787071
5.81031608582 1.33161115646 6.27663326263 163 121 99 4 0.864303558117 -0.126029431631 0.486924985793
5.65198421478 0.812919437885 6.71438312531 105 70 48 2 0.98174649543 -0.0661048822918 0.178336657052
5.38807296753 0.364127516747 7.52439641953 72 59 51 2 0.995389287789 -0.018933929884 0.094030165659
5.97179079056 1.67633759975 6.4610118866 96 58 40 4 0.863061894768 -0.166508472475 0.47686381116
5.95072793961 1.63918066025 6.50003814697 114 70 50 2 0.966701415281 -0.15506472849 0.203576284651
5.69087409973 1.44003009796 6.9896440506 112 80 66 3 0.946936843437 -0.135798453021 0.291323522392
5.70798397064 1.42591786385 6.97412252426 81 45 29 5 0.820719624501 -0.146305269059 0.552280785656
5.77413606644 1.39115834236 6.85776138306 134 93 74 3 0.942905159939 -0.131198269467 0.306132117637
5.75371456146 1.36595129967 6.90324163437 87 48 30 5 0.816920197319 -0.139530947414 0.559618178695
5.80114269257 1.34500837326 6.32470941544 161 119 100 3 0.92647666723 -0.124277363593 0.355240935108
5.80430984497 1.34822309017 6.29837656021 116 75 55 4 0.865148702294 -0.127871096355 0.484939898993
5.80034065247 1.34881472588 6.29724121094 116 75 55 3 0.9255307181 -0.124535920954 0.357608297226
5.70746707916 1.17409610748 6.80716085434 103 64 49 5 0.816431072878 -0.116655520256 0.565536729871
5.69505214691 1.08581459522 6.67999505997 168 135 117 3 0.94199827319 -0.0973047830602 0.321202478976
5.71217441559 0.957366883755 6.88603210449 140 106 93 4 0.89485844268 -0.0878202808972 0.437625371553
5.63648843765 0.938444077969 7.22756576538 133 99 86 3 0.959524003056 -0.0826640472523 0.269221735474
5.58460187912 0.924039840698 6.59730482101 106 75 56 2 0.979052118974 -0.0769533744715 0.188507629795
5.60319471359 0.692687928677 7.1529173851 111 78 61 2 0.989558553652 -0.0536920797854 0.133757352929
5.5035982132 0.472114413977 6.84682703018 135 89 64 6 0.742559321794 -0.0398038734038 0.668596519044
5.5958404541 0.375594824553 6.68344306946 130 88 63 2 0.98332013126 -0.0202988551542 0.180746994274
5.84141921997 1.45441854 6.42076873779 157 119 98 3 0.927650572879 -0.13670463502 0.347528786436
5.81552219391 1.39263129234 6.407310009 118 76 51 3 0.928390110578 -0.129828169699 0.348190248189
5.82323122025 1.38690936565 6.35196256638 169 128 106 4 0.866408836243 -0.132589832434 0.481410079677
5.76720046997 1.39084219933 6.00691461563 100 57 41 2 0.960498216036 -0.125293741898 0.24848471831
5.79071712494 1.34181880951 6.38036251068 137 94 70 3 0.928492329508 -0.124075006695 0.350010552354
5.70230054855 1.25203633308 6.49322605133 175 131 108 2 0.973341862187 -0.1116412891 0.200354290901
5.68298101425 1.20537471771 6.38213443756 153 110 91 2 0.971695720978 -0.106375515771 0.210930499162
5.6189250946 0.784656345844 7.19090175629 110 80 68 4 0.909614592841 -0.0691328711036 0.409660760415
5.61917304993 0.642474234104 7.0692243576 180 137 113 3 0.957421337723 -0.0504717516755 0.284248103521
5.60444879532 0.581755518913 6.9722867012 139 100 80 5 0.831565628652 -0.0496835167844 0.553199921732
5.93153047562 1.71589553356 6.17626476288 124 86 73 2 0.958522559929 -0.161484619281 0.234855742622
5.80253267288 1.43425524235 6.52958345413 137 91 62 2 0.971246832487 -0.131760795436 0.198289392479
5.75728368759 1.33235752583 6.4733543396 126 84 62 3 0.932065841736 -0.123099113295 0.340734317283
5.69580984116 1.2284784317 6.89492177963 139 101 87 3 0.946863297307 -0.113155386866 0.301074334069
5.63583898544 0.951171994209 7.17785167694 100 70 57 2 0.988014821928 -0.0809448893192 0.131433011621
5.67916488647 0.848941266537 6.88079833984 123 89 71 3 0.917596727314 -0.0762670260917 0.390127654433
5.62046909332 0.721522808075 6.83694791794 113 81 68 2 0.984554897246 -0.0565251548705 0.165700214775
5.65896558762 0.698713243008 7.08405780792 93 63 48 4 0.875134606461 -0.0638950177152 0.479642416062
5.65038251877 0.676433205605 7.07266187668 125 84 62 2 0.988412387688 -0.0521869376841 0.142539381924
5.65170192719 0.649494111538 6.97262191772 132 89 64 2 0.987046955784 -0.0492887371193 0.152672615328
5.60619258881 0.623115062714 6.83152294159 165 133 117 2 0.985027897477 -0.046194750563 0.166090596397
5.60619258881 0.623115062714 6.83152294159 165 133 117 2 0.985027897477 -0.046194750563 0.166090596397
5.62618160248 0.609194993973 6.88961076736 178 139 121 2 0.985993502037 -0.0448816302631 0.160631420354
5.56627988815 0.579499125481 6.736992836 119 91 76 2 0.983729418311 -0.0414105854843 0.174818748878
5.56225013733 0.513130664825 6.75934457779 118 82 63 4 0.895601624584 -0.0378408749452 0.443244625715
5.41891288757 0.674813270569 7.25084877014 171 132 113 2 0.42178080617 -0.0632847803403 0.904486588139
1.53503608704 -0.260891884565 3.46006727219 20 15 13 2 0.613972176005 0.0255533479338 0.788913932885
4.12511301041 0.347832262516 5.49650335312 60 48 39 2 -0.570849772966 -0.0299237319313 0.820509053559
5.94649887085 0.20767237246 6.52790117264 108 76 58 2 -0.352550372377 -0.020003283902 0.935579020484
8.07455825806 0.133889004588 9.7578163147 20 20 19 2 0.781101401485 0.00974508678124 -0.624328145995
1.06245744228 -0.242257863283 4.22596979141 47 35 31 2 0.659346436309 0.0247500994815 0.751431773019
0.89266949892 -0.103460073471 4.44299411774 10 14 18 2 0.673606246594 0.0150293252525 0.738937577832
6.49972057343 0.181224822998 7.93193531036 31 26 18 2 -0.810691619428 -0.0104454856283 0.585380209795
4.1999001503 0.313846647739 5.56193590164 30 26 28 2 -0.579444651791 -0.0253886509552 0.814616051839
0.846081316471 -0.185571625829 4.49650764465 249 251 253 2 0.677175935001 0.0208393900748 0.735525983822
1.20734167099 -0.505125522614 4.19855117798 8 8 7 2 0.652201629616 0.0434566759701 0.756798884539
4.21728563309 0.235579743981 5.57398891449 250 251 249 2 -0.581327803177 -0.0147432696414 0.813535875825
1.00217711926 -0.394171327353 4.21556806564 13 13 14 2 0.661145941204 0.0353142237484 0.749425746843
0.826296508312 -0.0447841621935 4.33760643005 9 10 12 2 0.672525229006 0.0107913641961 0.739995515398
0.899965941906 0.0654646605253 4.15596914291 12 12 13 2 0.663491564512 0.00305311408042 0.748177533955
6.00096845627 1.70345962048 6.13842248917 33 33 33 2 0.448621820722 -0.160259854163 0.87923560046
5.12616157532 2.20813155174 6.89827346802 56 49 44 2 0.541161660183 -0.213551589603 0.813350955078
5.84429502487 3.13990473747 7.62098932266 160 144 125 2 -0.355023520986 -0.341126211233 0.870397155072
5.42057037354 0.00910095870495 6.74269580841 183 139 123 2 0.740266286184 0.0148415393864 0.672149949229
2.7126584053 0.251772671938 5.46753263474 25 20 16 2 -0.327106754873 -0.0159717763919 0.944852408197
2.72265100479 0.326110184193 5.4696893692 61 51 46 2 -0.327946983522 -0.0281600481119 0.944276330154
5.45762348175 0.251067370176 7.88789558411 194 167 126 2 0.997869129767 -0.00522570289119 -0.0650376190144
5.45762348175 0.251067370176 7.88789558411 194 167 126 2 0.997869129767 -0.00522570289119 -0.0650376190144
6.83550167084 -0.0932309404016 5.25816726685 44 34 29 2 0.939418832127 0.0321622290202 0.341259210673
5.60731458664 1.85206210613 5.70861434937 114 76 52 2 0.840197404063 -0.164709321266 0.516661554302
5.675593853 0.664398670197 6.9559469223 120 81 64 2 0.985131905851 -0.0558010524544 0.162484985827
5.48222208023 0.906469702721 6.33815002441 10 10 10 4 0.974140307529 -0.0769069876346 0.212452292293
6.42975759506 0.214781269431 8.47469806671 250 251 251 2 0.98619329977 -0.00542513445628 0.165509345368
2.710044384 0.271794855595 5.46463394165 228 211 164 2 -0.326702987152 -0.0192483415196 0.944931034274
5.51994466782 1.06431937218 6.38136482239 199 155 127 4 0.973418531528 -0.0938186158687 0.208936425246
7.56213474274 0.216505527496 8.73911094666 31 33 24 2 -0.740332327233 -0.0168783562257 0.672029140993
5.8232793808 1.39303159714 6.31640434265 131 88 63 2 0.924197959501 -0.132144158141 0.358323949971
5.71220779419 0.957397758961 6.88609075546 140 106 93 3 0.870020750945 -0.0897719089257 0.484773036887
5.63102626801 0.839692056179 7.15020513535 94 68 66 3 0.883734536725 -0.0770314412803 0.461605270392
5.41544437408 -0.0206555612385 6.7066822052 157 117 92 2 0.949117357786 0.0204881214829 0.314255434365
1.63346719742 -0.586666882038 3.12833690643 51 76 96 3 0.828178960233 0.052575780156 0.557992291316
7.44786262512 -0.150201037526 3.29981184006 101 87 71 2 -0.522442207411 0.0255811570356 0.852290880111
6.30631542206 0.479283362627 4.99440860748 9 9 9 2 0.7970281895 -0.0314841033406 0.603120896985
5.17430830002 2.17305994034 7.32294940948 95 87 81 3 0.842727995914 -0.209217969432 0.49602153801
5.65850877762 2.11299085617 6.93369674683 61 43 35 2 0.883728483264 -0.20152049856 0.422390170965
5.39645767212 0.386318773031 6.8890581131 100 66 48 2 0.905126855315 -0.0226002800329 0.424540461121
5.36740207672 -0.0392136983573 6.78941011429 12 12 12 2 0.901822234346 0.0210390970731 0.431594733556
5.36740207672 -0.0392136983573 6.78941011429 12 12 12 2 0.901822234346 0.0210390970731 0.431594733556
5.59610271454 0.301293134689 6.6540389061 125 79 54 3 0.818506703631 -0.0150582919397 0.574299594249
5.11764240265 0.187246829271 7.06555891037 10 10 10 2 0.916721654311 -0.00208086949559 0.399521061396
5.15624570847 -0.197187200189 6.86555051804 14 14 13 2 0.908113063441 0.036569058682 0.417125122661
5.4132399559 0.11516610533 6.84539651871 171 131 114 2 0.903337469917 0.00530116943051 0.428897788578
5.13045692444 -0.244836747646 6.58917236328 8 8 8 2 0.2927042153 0.0263322974651 0.95584039068
1.51870679855 -0.140110433102 3.23939800262 81 72 64 2 0.852900078363 0.0206378511381 0.521666114894
0.953685522079 -0.48530998826 4.60198354721 91 77 59 3 0.935540699072 0.045372153066 0.350292689199
2.87480115891 0.41046410799 1.77391660213 7 8 7 2 0.776126126279 -0.0166739677593 0.630357212147
1.22744059563 -0.513596832752 4.19177627563 12 12 11 2 0.884343566967 0.0463860325498 0.464526416417
5.66653013229 0.716648578644 7.01422452927 85 56 46 2 0.903741032887 -0.0582957069793 0.424091683512
7.44786262512 -0.150201037526 3.29981184006 101 87 71 2 -0.522442207411 0.0255811570356 0.852290880111
4.27841043472 0.192560717463 6.25907802582 17 18 15 3 -0.408456261377 -0.0274335397076 0.912365542664
1.6075013876 0.123927265406 3.21054673195 86 82 80 2 0.850592615918 0.00289579523189 0.525817283965
1.6075013876 0.123927265406 3.21054673195 86 82 80 2 0.850592615918 0.00289579523189 0.525817283965
5.56215238571 1.97531688213 5.70217609406 93 56 38 2 0.898975233265 -0.183998327326 0.397477226415
1.22391247749 -0.524865090847 4.2220916748 13 13 12 2 0.885203814522 0.0471877030211 0.462803983819
2.45351672173 -0.457576811314 2.51786446571 91 75 58 5 0.616567877285 0.0393931385321 0.786315606698
5.20595216751 2.16830253601 7.33508777618 91 84 78 3 0.948307373653 -0.203192644974 0.243774227725
0.703912317753 -0.621191501617 5.16869306564 85 116 139 2 0.916246131581 0.0535160682614 0.39702525965
5.13411951065 2.03529858589 7.01116609573 100 61 47 2 0.898656308742 -0.185411690342 0.397541625295
5.62021589279 1.00879013538 6.61816883087 184 147 129 2 0.886754088116 -0.0870691910858 0.453967116841
0.837470829487 -0.564045190811 7.58017921448 96 97 104 2 0.996810615284 0.0522514148085 0.0603190426538
0.795085430145 0.895882844925 4.3804359436 117 82 60 2 0.9610800883 -0.0482456154345 0.272024676206
2.07590103149 0.241333603859 2.58839869499 27 31 21 2 0.822049861293 -0.00504761830499 0.569393139314
1.24465751648 -0.275382816792 3.6754899025 74 65 55 2 0.945491306242 0.0312425101292 0.324145176398
1.14461505413 -0.497876822948 4.25532817841 91 82 60 2 0.887343515118 0.0451805773769 0.458890184691
