ply
format ascii 1.0
element vertex 47
property float x
property float y
property float z
property uchar diffuse_red
property uchar diffuse_green
property uchar diffuse_blue
property int32 number_of_camera_sees_this_point
property float vsfm_cnx
property float vsfm_cny
property float vsfm_cnz
end_header
0.354743567759 0.0711902018978 1.35230059773 57 57 57 2 0.112468841732 -0.125823248254 -0.985656770807
0.349693646259 0.0403455281084 1.34701326105 59 59 59 2 0.117292561521 -0.102019889923 -0.987843305931
0.298096556684 -0.0423261525739 1.35524734516 72 72 72 2 0.153605748191 -0.0350719637851 -0.987509610829
0.386687849623 0.11863777839 1.36169752329 119 119 119 2 0.0885415602197 -0.162253085214 -0.982768705471
0.375427321373 0.0296830000588 1.35547895629 72 72 72 2 0.0993075192478 -0.0937003384699 -0.99063528263
0.357540364336 0.024114568427 1.3494998247 75 75 75 2 0.112179952257 -0.0892671751193 -0.989670162103
0.291631778782 0.0238391205126 1.34236963185 81 81 81 2 0.157647707075 -0.087668708058 -0.983596155992
0.291631778782 0.0238391205126 1.34236963185 81 81 81 2 0.157647707075 -0.087668708058 -0.983596155992
0.416056363582 0.0431601456348 1.37940063908 114 114 114 2 0.0696152577588 -0.103366542367 -0.992204149259
0.350183521828 0.0313089043031 1.34755833593 60 60 60 2 0.117172542675 -0.0948764124682 -0.988569199197
0.269641164573 0.0100754478794 1.34182637569 80 80 80 2 0.172888658458 -0.0762184386331 -0.981987913056
0.269641164573 0.0100754478794 1.34182637569 80 80 80 2 0.172888658458 -0.0762184386331 -0.981987913056
0.342500906623 0.13794978939 1.35361033785 62 62 62 2 0.118421084237 -0.176521062181 -0.977147256771
0.362998202276 0.113938953738 1.35729980572 141 141 141 2 0.105090659999 -0.158475135546 -0.981754340247
0.362998202276 0.113938953738 1.35729980572 141 141 141 2 0.105090659999 -0.158475135546 -0.981754340247
0.344313636151 0.0358437454172 1.34632551259 59 59 59 2 0.121158224016 -0.0983758931594 -0.987746358332
0.241153217849 0.0108712577092 1.33635545485 74 74 74 2 0.192558239384 -0.0763238719912 -0.978312828808
0.276555355995 -0.0218071893008 1.346331948 70 70 70 2 0.168582472291 -0.0510355718158 -0.984365440497
0.135798502926 -0.041340471119 1.35610451964 64 64 64 2 0.259311230255 -0.0321902154517 -0.965257207118
0.326559806282 0.129288668051 1.35282584217 69 69 69 2 0.129544910938 -0.169494010144 -0.976979987807
0.367896350979 0.0343179943628 1.35304622265 73 73 73 2 0.104521851835 -0.097320672654 -0.989749397152
-0.0487331353925 0.0305877257312 1.21496693784 124 124 124 2 0.399958516269 -0.0883688877829 -0.912263188414
0.345961768343 0.0325603988098 1.34601833439 120 120 120 2 0.120155783431 -0.0958585487744 -0.988116251427
0.364928315857 0.0321355561823 1.35173267264 68 68 68 2 0.106718473732 -0.0956238004729 -0.989680380804
0.291674465159 0.0214663209363 1.34260744519 74 74 74 2 0.157663052131 -0.0857850404754 -0.983759771907
0.305163579286 0.00678074140201 1.34644203233 120 120 120 2 0.148565336465 -0.0743533856244 -0.986103399673
0.306989568985 -0.00166472181634 1.34768003088 80 80 80 2 0.147430240253 -0.0676688948058 -0.986754906213
0.32169944583 -0.00266002017492 1.34968635453 147 147 147 2 0.137294997307 -0.0671651911468 -0.988250434259
0.433288554129 -0.0128300269015 1.38634121266 58 58 58 2 0.0588064854075 -0.0599789937355 -0.99646591391
0.30343154088 -0.0176717102331 1.351915545 112 112 112 2 0.14979486905 -0.054749487003 -0.987200076418
0.312559257897 -0.0348602357228 1.3575826633 82 82 82 2 0.143460784366 -0.0412154591139 -0.988797395465
0.312559257897 -0.0348602357228 1.3575826633 82 82 82 2 0.143460784366 -0.0412154591139 -0.988797395465
0.323463616245 0.125896025674 1.35215024608 88 88 88 2 0.131812090504 -0.166891536103 -0.977124755583
0.405805640172 0.0817378272751 1.37331624455 65 65 65 2 0.0759151000158 -0.133303521553 -0.988163482796
0.351822819303 0.0560571838982 1.3540463165 88 88 88 2 0.11477343375 -0.113795804042 -0.986852356682
0.00147974494313 0.0517666385483 1.25574150452 65 65 65 2 0.35919128748 -0.104951725881 -0.92734392446
0.363494577842 0.0531912010515 1.35482890116 93 93 93 2 0.106845006852 -0.11182896274 -0.987966815031
0.37153613194 0.03201426694 1.35316367995 137 137 137 2 0.102086164318 -0.0956001204628 -0.990171213489
0.366929249831 0.0292893636005 1.35147286497 127 127 127 2 0.105449509743 -0.0934577714258 -0.990023255209
0.293959078671 0.0258286508291 1.3417751052 74 74 74 2 0.156084030446 -0.0893447118566 -0.983694717838
0.281417829742 0.0145485467642 1.33983379208 146 146 146 2 0.16508558971 -0.0802029805088 -0.983012833074
0.271138242418 0.0142370561573 1.34132044045 137 137 137 2 0.171824945999 -0.079569942578 -0.981908759596
0.30887618138 -0.0220323223103 1.35217568884 131 131 131 2 0.146204375556 -0.0514319793372 -0.987916510678
0.282954559053 -0.0407357765656 1.35108836263 109 109 109 2 0.16419342646 -0.0360925645863 -0.985767642748
0.222739510945 -0.0516985279588 1.3455669486 73 73 73 2 0.205112444531 -0.0262319164096 -0.978386821079
0.236481623261 -0.0713294470674 1.3580608933 69 69 69 2 0.194791705389 -0.0109867914849 -0.980783096268
0.306929473057 -0.126747904321 1.41409748458 78 78 78 2 0.142964320051 0.0299989657643 -0.989273099425
